644799.93	1119282.2	-3.6
644818.62	1119395.33	-12.9
644812.43	1119502	-16.61
644805.73	1119616.31	-20.53
644801.92	1119733.04	-23.52
644798.18	1119851.17	-26.5
644792.18	1119968.35	-28.74
644797.79	1120083.3	-30.22
644800.04	1120201.82	-32.2
644799.99	1120319.45	-34.8
644798.38	1120435.62	-36.9
644808.15	1120550.48	-37.54
644806.39	1120668.79	-38.19
644796	1120776.08	-38.84
644800.39	1120882.91	-39.09
644803.6	1120994.02	-39.2
644799.69	1121102.62	-39.31
644805.53	1121212.04	-39.43
644800.55	1121321.52	-39.54
644797	1121430.77	-39.66
644804.51	1121538.48	-39.77
644797.64	1121648.39	-39.88
644803.21	1121815.51	-39.91
644789.23	1121933.32	-39.73
644801.35	1122038.94	-39.55
644797.88	1122158.77	-39.36
644799.35	1122273.2	-39.18
644797.6	1122376.36	-39
644805.72	1122478.86	-39.46
644797.9	1122801.64	-40.95
644800.02	1122904.82	-41.42
644796.68	1123007.68	-41.87
644798.67	1123110.97	-42.11
644801.13	1123214.76	-42.13
644791.88	1123341.34	-42.15
644801.02	1123443.12	-42.17
644800.91	1123546.37	-42.19
644795.6	1123701.46	-41.71
644801.62	1123803.99	-41.04
644799.23	1123907.34	-40.38
644808.58	1124031.97	-39.56
644799.77	1124132.21	-38.9
644798.64	1124234.6	-39.43
644799.95	1124337.05	-39.97
644798.61	1124461.38	-40.98
644798.93	1124563.48	-41.87
644799.5	1124717.82	-42.04
644801.16	1124822.37	-42
644800.91	1124925.06	-42.06
644804.13	1125030.88	-42.12
644795.69	1125132.76	-42.18
644794.89	1125234.73	-42.24
644800.76	1125413.2	-42.23
644800.29	1125516.09	-42.14
644800.26	1125618.51	-42.08
644798.04	1125722.28	-42.04
644800.06	1125825.3	-42
644799.03	1125927.64	-42.03
644801.18	1126031.28	-42.06
644798.26	1126159.47	-42.09
644799.8	1126262.67	-42.12
644796.69	1126365.55	-42.15
644797.92	1126468.61	-42.18
644796.07	1126624.27	-42.19
644815.58	1126725.94	-42.17
644799.87	1126839.44	-42.15
644801.37	1126954.19	-42.13
644797.98	1127091.15	-42.11
644817.55	1127194.95	-40.9
644888.05	1127298.78	-39.8
644972.67	1127369.13	-39.82
644800.57	1127474.81	-39.63
644790.44	1127647.47	-39.21
644800.93	1127764.91	-39
644785.42	1127881.87	-38.96
644799.32	1127981.18	-38.94
644803.55	1128089.7	-38.92
644805.16	1128190.85	-38.9
644800.3	1128304.38	-38.93
644811.56	1128419.81	-38.98
644811.79	1128534.19	-39.08
644799.95	1128648.2	-39.23
644804.78	1128764.75	-39.65
644803.36	1128880.42	-40.28
644802.72	1128996.75	-40.96
644802.64	1129199.93	-41.1
644798.95	1129317.24	-41.7
644799.36	1129465.16	-41.33
644801.08	1129581.3	-40.42
644797.5	1129696.86	-40.12
644800.31	1129812.54	-39.98
644799.76	1129928.08	-39.82
644801.19	1130043.39	-39.66
644797.91	1130157.53	-39.5
644803.76	1130272.92	-39.06
644801.85	1130387.8	-38.5
644800.96	1130502.45	-37.65
644798.37	1130732.94	-35.26
644801.81	1130848.93	-33.8
644802.1	1130966.72	-32.6
644805.75	1131081.92	-31.18
644798.66	1131197.06	-29.54
644800.02	1131311.82	-28.14
644799.54	1131426.63	-27.5
644800.16	1131542.87	-26.86
644800.07	1131655.54	-26.26
644800.35	1131767.97	-25.67
644803.01	1131881.33	-25.09
644798.41	1131994.15	-24.5
644801.74	1132105.63	-23.5
644800.96	1132217.62	-22.5
644798.41	1132328.84	-21.2
644798.56	1132441.42	-19.78
644798.05	1132562.62	-18.89
644797.18	1132670.28	-18
644801.62	1132794.79	-16
647289.98	1131245.7	-3
647304.1	1131144	-12.8
647304.66	1131021.01	-18.5
647299.05	1130896.77	-20.3
647306.7	1130774.84	-22.5
647312.58	1130437.43	-27.56
647304.73	1130333.76	-28.74
647308.17	1130209.1	-30.21
647313.1	1130088.37	-31.37
647306.71	1129986.06	-32.14
647298.08	1129884.73	-32.9
647300.6	1129763.94	-32.94
647301.1	1129645.92	-32.98
647303.9	1129527.56	-33.05
647298.05	1129404.12	-33.15
647305.33	1129262.29	-33.16
647304.35	1129141.59	-33.1
647296.98	1129021.37	-33.6
647316.83	1128906.5	-34.08
647292.93	1128792.75	-34.54
647306.49	1128672.31	-34.94
647293.3	1128549.43	-35.17
647298.2	1128426.1	-35.5
647324.27	1128327.37	-35.9
647293.06	1128221.19	-36.21
647308.2	1128112.15	-36.27
647307.25	1127997.71	-36.32
647298.4	1127882.85	-36.37
647308.2	1127769.38	-36.49
647290.62	1127658.4	-36.68
647290.54	1127545.26	-36.86
647305.02	1127399.92	-36.86
647292.94	1127280.65	-36.58
647299.6	1127152.86	-36.11
647284.06	1127036.02	-35.36
647288.35	1126929.8	-34.6
647302.01	1126716.9	-32.2
647293.48	1126603.48	-33.3
647306.36	1126481.93	-34.9
647299.07	1126282.95	-35.18
647297.69	1126171.67	-35.09
647290.65	1126061.71	-34.99
647308.88	1125954.63	-34.9
647299.52	1125846.75	-34.85
647291.93	1125737.1	-34.81
647301.94	1125626.41	-34.76
647291.8	1125512.28	-34.71
647308.86	1125401.9	-34.66
647293.01	1125289.51	-34.6
647288.75	1125176.98	-34.54
647294.54	1125076.94	-34.45
647295.05	1124963.9	-34.31
647299.54	1124849.75	-34.17
647300.74	1124735.69	-34.03
647299.4	1124620.89	-33.93
647310.4	1124515.81	-33.84
647301.2	1124404.41	-33.69
647305.29	1124290.37	-33.46
647303.55	1124186.3	-32.8
647300.55	1124061.44	-34.5
647301.97	1123961.08	-35.18
647307.83	1123836.87	-35.65
647302.19	1123713.15	-35.84
647298.93	1123590.04	-35.7
647304.75	1123469.41	-35.45
647307.93	1123353.51	-35.2
647308.43	1123232.48	-35.02
647305.04	1123109.84	-34.84
647303.62	1122986.29	-32.8
647290.04	1122871.75	-9
647307.16	1122711.87	-7
647302.93	1122593.1	-28
647294.41	1122474.28	-34.2
647309.66	1122359.13	-34.33
647310.73	1122254.6	-34.46
647283.05	1122149.05	-34.59
647302.39	1122040.5	-34.75
647322.06	1121928.42	-34.5
647287.51	1121816.79	-34
647281.96	1121706.18	-33.45
647324.29	1121604.71	-33
647299.63	1121494.27	-33.57
647302.6	1121320.63	-33.73
647302.82	1121220.45	-33.67
647301.32	1121119.21	-33.61
647301.23	1121016.9	-32.3
647303.59	1120916.23	-30.31
647305.41	1120813.66	-26.72
647308.57	1120688.61	-14.8
649805.18	1118037.57	-4.13
649799.47	1118143.05	-5.02
649795.85	1118266.79	-5.99
649795.01	1118384.09	-6.96
649802.99	1118500.93	-7.89
649808.6	1118619.03	-8.81
649804.76	1118737.9	-9.73
649806.37	1118856.08	-10.65
649801.11	1118974.34	-11.58
649803.63	1119093.25	-12.52
649806.63	1119212.02	-13.45
649812.75	1119338.14	-14.4
649818.24	1119457.43	-15.04
649823.15	1119576.41	-15.68
649813.14	1119687.42	-16.09
649811.68	1119796.54	-16.45
649810.24	1119905.59	-16.81
649811.27	1120015.36	-17.17
649811.72	1120125.42	-17.53
649807.33	1120234.11	-17.73
649808.11	1120343.22	-17.94
649801.77	1120451.49	-18.14
649802.61	1120561.32	-18.34
649799.01	1120671.85	-18.55
649802.38	1120781.37	-18.75
649799.7	1120899.82	-18.82
649805.02	1121016.27	-18.84
649808.56	1121130.1	-18.86
649807.01	1121242.93	-18.88
649809.84	1121354.83	-17.93
649839.35	1121453.77	-9.6
649944.26	1121440.66	-11.2
650053.29	1121419.4	-14.2
650199.49	1121434.51	-5.2
650299.66	1121565.83	-16
650347.04	1121668.32	-15.55
650405.75	1121766.02	-16
650501.35	1121909.41	-15
650582.53	1122046.58	-5.8
650508.02	1122134.72	-13
650415.25	1122204.72	-13.9
650321.2	1122274.67	-13
650215.51	1122317.31	-11.1
650099.45	1122314.3	-15.5
649995.17	1122289.5	-8.7
649916.35	1122212.86	-16.1
649919.06	1122101.78	-13.7
649835.65	1121928.06	-11.2
649795.26	1122035.98	-15.8
649799.28	1122141.17	-17.2
649803.6	1122246.01	-18.5
649805.88	1122430.45	-19
649805.02	1122544.23	-19.7
649803.64	1122661.56	-19.8
649805.18	1122780.26	-21.1
649808.88	1122885.25	-22
649809.72	1122989.73	-23.8
649800.2	1123152.32	-24.2
649796.87	1123267.1	-24.7
649797.66	1123380.21	-24.9
649802.16	1123570.73	-24.9
649801.16	1123678.32	-24.9
649801.07	1123785.63	-23.8
649803.18	1123892.8	-23.8
649806.25	1124000.62	-23.96
649805.74	1124107.69	-24.03
649802.55	1124216.62	-24.11
649799.89	1124323.34	-24.19
649795.24	1124429.83	-24.26
649795.39	1124536.35	-24.42
649796.92	1124641.88	-24.66
649800.11	1124749.18	-24.9
649803.07	1124854	-24.94
649804.34	1124959.95	-24.97
649804.59	1125064.88	-25.04
649805.97	1125170.35	-25.19
649807.4	1125274.83	-25.35
649805.08	1125380.75	-25.5
649805.59	1125486.61	-25.61
649805.14	1125593.17	-25.71
649801.9	1125699.31	-25.82
649803	1125883.23	-25.88
649800.6	1125989.14	-25.85
649806.41	1126121.5	-25.82
649804.11	1126227.81	-25.8
649803.28	1126333.02	-25.85
649802.58	1126438.22	-25.91
649806.61	1126544.13	-25.96
649802.1	1126702.92	-25.1
649801.45	1126807.93	-23.87
649796.2	1126913.72	-23
649797.79	1127018.84	-24.2
649801.95	1127127.88	-25.1
649806.57	1127244.26	-27
649803.37	1127360.58	-28.84
649800.8	1127474.23	-28.92
649804.69	1127644.93	-28.74
649805.69	1127758.07	-28.22
649801.35	1127874.05	-27.69
649797.18	1127987.12	-27.17
649792.66	1128099.31	-26.57
649800.38	1128208.8	-25.91
649803.22	1128317.95	-25.26
649798.92	1128429.59	-24.77
649803.21	1128541.42	-24.33
649803.53	1128654.36	-24
649795.19	1128795.18	-24
649796.16	1128937.97	-22.86
649797.75	1129051.12	-20.71
649800.85	1129163.37	-18.7
649805.35	1129278.08	-17.5
649808.92	1129392.51	-15.17
649806.67	1129506.05	-13.42
649804.74	1129618.81	-12.28
649803.55	1129729.12	-10.2
649804.59	1129840.32	-8.43
649804.91	1129952.76	-7.29
649805.96	1130065.15	-6
649808.42	1130173.55	-4.83
649797.24	1130297.83	-4
649801.53	1130413.14	-3.1
642308.87	1132950.5	-4.6
642291.04	1132836.57	-16.9
642293.85	1132722.72	-23
642290.49	1132617.02	-27
642313.97	1132510.42	-28.44
642298.33	1132397.75	-29.89
642282.75	1132284.86	-30.74
642280.15	1132172.36	-31.58
642304.45	1132064.4	-32.42
642300.03	1131951.9	-33.25
642296.54	1131838.39	-34.08
642297.05	1131725.31	-34.9
642296.67	1131613.19	-35.73
642298.87	1131499.89	-36.55
642303.7	1131388.34	-37.38
642306.3	1131192.08	-37.9
642305.38	1131078.47	-39.9
642309.35	1130965.5	-40.09
642307.68	1130854.05	-40.04
642305.07	1130741.66	-40
642301.26	1130517.94	-40.08
642302.19	1130404.84	-40.84
642300.63	1130292.72	-41.26
642302.05	1130180.43	-41.33
642307.25	1130069.3	-41.41
642309.66	1129955.72	-41.48
642305.05	1129843.13	-41.51
642305.49	1129730.74	-41.53
642305.03	1129617.06	-41.55
642305.58	1129503.79	-41.57
642308.58	1129361.42	-41.6
642306.52	1129248.37	-41.61
642307.78	1129105.71	-41.63
642301.65	1128960.8	-41.65
642301.78	1128818.55	-41.67
642303.19	1128650.77	-41.69
642305.24	1128511.21	-41.71
642304.96	1128399.01	-41.73
642303.22	1128286.17	-41.74
642303.64	1128173.34	-41.76
642301.93	1128061.87	-41.77
642305.12	1127948.54	-41.79
642313.59	1127750.23	-41.74
642304.27	1127642.59	-41.69
642308.96	1127529.7	-41.63
642305.98	1127418.74	-41.57
642313.01	1127303.93	-41.51
642303.69	1127193.73	-41.46
642296.33	1127079.06	-41.4
642306.5	1126967.05	-41.34
642295.17	1126855.79	-41.29
642308.4	1126747.88	-41.23
642309.74	1126634.65	-41.18
642318.67	1126523.74	-41.15
642312.15	1126414.48	-41.12
642304.99	1126299.34	-41.09
642306.91	1126184.2	-41.06
642303.5	1126068.66	-41.02
642301.48	1125953.56	-40.62
642304.46	1125834.24	-39.1
642312.13	1125712.66	-39.23
642301.1	1125594.43	-40.11
642303.47	1125411.11	-40.7
642295.6	1125289.58	-40.59
642299.09	1125168.56	-40.49
642299.57	1125044.65	-40.38
642294.2	1124923.39	-40.24
642303.33	1124803.46	-39.99
642310.53	1124683.07	-39.75
642305.8	1124564.06	-39.5
642302.2	1124443.67	-39.2
642294.65	1124323.28	-38.9
642302.43	1124202.75	-38.6
642299.4	1124080.07	-39.5
642300.67	1123926.56	-28
642300.48	1123713.64	-39.6
642298.96	1123588.49	-40
642299.91	1123464.36	-40.4
642299.15	1123341.67	-40.8
642301.68	1123218.04	-40.93
642308.26	1123094.38	-41.07
642300.42	1122879.26	-41.17
642303.13	1122759.48	-41.14
642301.34	1122493.27	-41.06
642304.41	1122374.17	-41.03
642306.39	1122253.57	-40.95
642296.16	1122134.35	-40.76
642295.67	1122012.62	-40.57
642297.21	1121891.41	-40.38
642299.03	1121774.63	-40.2
642310.24	1121655.96	-39.88
642304.94	1121537.4	-39.44
642300.78	1121416.96	-39
642303.49	1121297.59	-38
642301.37	1121178.77	-32.3
642297.4	1121063.45	-19.2
639805.43	1119953.3	-7.8
639803.35	1120063.74	-14.8
639805.73	1120174.77	-19.33
639813	1120283.68	-20.66
639805.39	1120391.57	-22
639806.98	1120501.24	-23.33
639805.08	1120611.14	-24.67
639801.36	1120720.57	-26
639801.67	1120829.64	-27.61
639804.37	1120937.29	-29.51
639803.26	1121046.5	-31.4
639807.32	1121157	-31.99
639807.28	1121266.5	-32.57
639806.51	1121378.93	-33.16
639809.49	1121489.26	-33.74
639806.68	1121599.73	-34.33
639804.83	1121711.58	-34.92
639803.6	1121825.79	-35.51
639800.95	1121936.16	-35.88
639799.09	1122046.74	-36.04
639804.91	1122156.9	-36.2
639803.04	1122269.86	-35.22
639801.17	1122381.78	-34.24
639804.93	1122493.69	-32.5
639809.75	1122720.4	-23.8
639912.9	1122761.49	-11.5
640020.13	1122748.23	-14
640103.3	1122814.69	-11.9
640172.83	1122901.07	-22
640244.54	1122987.48	-27.2
640323.51	1123058.12	-31
640411.8	1123118.49	-23
640433.26	1123225.76	-5.8
640368.49	1123309.49	-16.5
640272.14	1123373.62	-13.8
640166.98	1123424.77	-10.1
639998.19	1123455.89	-12
639883.34	1123471.36	-8
639814.81	1123553.39	-5
639804.37	1123691.24	-6
639787.53	1123806.48	-7
639797.47	1123922.79	-20
639805.1	1124038.28	-30.2
639803.05	1124152.85	-37
639803.6	1124265.79	-40
639808	1124379.88	-40.23
639803.77	1124493.94	-40.36
639795.6	1124607.77	-40.49
639792.16	1124723.84	-40.63
639799.18	1124837.52	-40.76
639796.14	1124951.72	-40.89
639802.94	1125064.55	-41.02
639807.17	1125179.25	-41.15
639803.67	1125294.03	-41.28
639805.16	1125406.79	-41.41
639809.35	1125520.21	-41.54
639807.25	1125635.77	-41.67
639801.25	1125752.48	-41.8
639797.48	1125867.79	-41.93
639800.63	1125983.95	-42.11
639799.39	1126101.56	-42.33
639801.85	1126218.74	-42.56
639807.1	1126334.8	-42.78
639804.76	1126481.41	-42.99
639810.64	1126598.5	-42.96
639813.26	1126716.47	-42.92
639810.99	1126832.79	-42.88
639798.56	1126980.18	-42.84
639798.58	1127096.56	-42.8
639802.93	1127212.27	-42.77
639798.04	1127329.03	-42.73
639798.74	1127443.84	-42.7
639806.93	1127561.43	-42.66
639801.54	1127679.17	-42.62
639802.1	1127824.33	-42.58
639801.16	1127940.81	-42.54
639810.15	1128055.77	-42.51
639795.01	1128174.14	-42.42
639797.57	1128291.42	-42.33
639799.19	1128407.21	-42.23
639803.15	1128524.05	-42.13
639804.97	1128641.62	-42.03
639809.18	1128759.3	-41.93
639807.61	1128879.07	-41.83
639806.37	1129000.28	-41.73
639799.81	1129117.88	-41.63
639799.71	1129235.87	-41.53
639805.8	1129353	-41.43
639797.53	1129471.44	-41.33
639801.7	1129589.69	-41.23
639804.74	1129708.02	-41.13
639802.01	1129826.34	-41.03
639801.39	1129945.62	-40.93
639812.19	1130062.3	-40.62
639811.38	1130180.13	-40.24
639814.06	1130297.04	-39.86
639801.68	1130416.5	-39.47
639804.47	1130533.41	-39.1
639795.76	1130769.23	-36.4
639801.75	1130884.18	-34.92
639809.73	1130994.98	-33.44
639805.69	1131110.12	-31.96
639799.91	1131223.54	-30.48
639793.79	1131338.26	-29
639792.56	1131453.68	-28.2
639799.9	1131566.86	-27.4
639807.02	1131679.38	-26.6
639798.87	1131794.17	-25.8
639800.88	1131909.76	-24.96
639807.01	1132023.22	-24
639798.92	1132137.17	-23.03
639792.85	1132250.54	-22.07
639799.11	1132364.1	-21.1
639813.48	1132477.52	-20.13
639811.33	1132592.16	-19.17
639803.21	1132704.91	-18.2
639799.26	1132817.87	-18.25
639797.78	1132932.62	-18.29
639800.98	1133045.95	-18.34
639804.04	1133246.92	-17.37
639802.94	1133361.55	-15.31
639802.28	1133477.73	-14.16
639794.49	1133591.88	-13.32
639792.25	1133702.89	-12.48
639802.41	1133813.79	-11.63
639803.15	1133925.41	-10.83
639803.16	1134036.53	-10.13
639799.05	1134147.88	-9.44
639800.69	1134259.89	-8.75
639802.47	1134372.16	-8.06
639799.74	1134483.76	-7.37
639803.83	1134594.71	-6.67
639802.48	1134706.09	-5.72
639804.36	1134817.85	-4.68
639802.69	1134929.58	-3.33
637320.63	1117417.6	-2.02
637299.8	1117521.49	-4.2
637301.5	1117622.44	-6.3
637305.65	1117731.78	-7.8
637309.16	1117842.39	-8.4
637311.71	1117953.45	-9.37
637305.38	1118065.76	-10.34
637304.95	1118177.61	-11.31
637306.35	1118288.7	-12.22
637306.83	1118399.35	-12.92
637304.58	1118510.94	-13.62
637305.25	1118622.37	-14.33
637299.85	1118733.53	-15.03
637295.81	1118845.02	-15.74
637295.96	1118957.09	-16.45
637301.76	1119068.9	-17.15
637306.45	1119181.49	-17.84
637303.4	1119294.1	-18.53
637297.11	1119405.31	-19.22
637296.33	1119517.68	-19.91
637301.55	1119633.95	-20.61
637300.41	1119746.99	-21.3
637299.32	1119859.67	-22
637298.69	1119972.41	-22.69
637299.19	1120084.37	-23.38
637295.78	1120196.64	-24.07
637295.08	1120309.58	-24.76
637298.87	1120422.06	-25.45
637296.07	1120533.7	-26.14
637297.35	1120645.68	-26.83
637298.13	1120757.66	-27.52
637298.41	1120869.82	-28.21
637301.84	1120982	-28.9
637301.33	1121094.88	-28.62
637296.22	1121206.05	-28.35
637292.5	1121317.37	-28.07
637296.27	1121429.95	-27
637299.46	1121542.49	-25.4
637305.77	1121653.93	-27
637301.83	1121765.71	-31.7
637295.97	1121876.56	-34
637297.48	1122015.31	-34
637299.69	1122154.57	-34.3
637301.13	1122349.91	-34.93
637299.69	1122462.01	-34.87
637300.22	1122794.86	-34.27
637299.88	1122908.53	-34
637299.09	1123020.36	-34.2
637300.25	1123130.62	-34.4
637296.15	1123241.32	-34.6
637300.6	1123350.34	-34.8
637296.14	1123459.09	-35
637284.48	1123568.95	-35.34
637274.37	1123678.39	-35.68
637288.58	1123787.13	-36.02
637293.52	1123895.98	-36.36
637295.81	1124006.18	-36.7
637292.17	1124116.98	-37.04
637296.25	1124228.23	-37.38
637304.02	1124339.32	-37.72
637297.79	1124450.83	-38.06
637304.1	1124560.85	-38.4
637302.52	1124671.08	-38.74
637299.46	1124782.03	-39.08
637299.16	1124892.72	-39.42
637298.73	1125004.27	-39.54
637299.41	1125115.6	-39.59
637297.78	1125226.97	-39.64
637295.1	1125337.6	-39.69
637298.49	1125447.83	-39.74
637301.7	1125559.31	-39.79
637302.61	1125668.43	-39.84
637298.67	1125778.23	-39.89
637294.95	1125887.97	-39.94
637290.49	1125997.73	-39.99
637304.73	1126102.7	-40.14
637296.18	1126215.95	-40.32
637289.6	1126326.5	-40.5
637280.96	1126435.17	-40.68
637293	1126541.87	-40.86
637294.67	1126678.75	-40.95
637292.55	1126789.83	-40.86
637298.5	1126899.16	-40.77
637302.11	1127009.79	-40.68
637299.39	1127119.84	-40.59
637296.03	1127229.67	-40.5
637301.46	1127338.11	-40.41
637301.32	1127449.13	-40.32
637301.26	1127558.71	-40.23
637300.65	1127669.96	-40.14
637299.89	1127780.05	-40.05
637299.79	1127891.25	-39.96
637297.6	1128001	-39.87
637303.79	1128109.24	-39.78
637303.23	1128220.04	-39.71
637304.28	1128329.82	-39.64
637306.52	1128439.87	-39.57
637308.75	1128548.4	-39.5
637307.08	1128658.84	-39.43
637302.36	1128769.34	-39.35
637299.6	1128877.12	-39.28
637295.62	1128986.46	-39.21
637294.47	1129094.76	-39.14
637297.99	1129203.97	-39.07
637301.6	1129313.52	-39
637303.83	1129421.17	-38.62
637313.34	1129529.28	-38.24
637304.81	1129638.57	-37.86
637286.4	1129744.03	-37.48
637291.81	1129856.22	-37.1
637294.64	1129965.48	-36.29
637297.53	1130074.84	-35.34
637297.64	1130182.77	-34.4
637302.08	1130290	-33.46
637305.7	1130397.48	-32.52
637305.06	1130505.79	-31.57
637295.13	1130833.58	-28.74
637296.17	1130943.22	-27.79
637298.3	1131050.82	-26.84
637305.7	1131158.85	-25.9
637305.11	1131267.75	-24.96
637298.94	1131376.97	-24.01
637299.62	1131485.49	-23.07
637303.13	1131594.53	-22.13
637302.52	1131703.47	-21.18
637299.1	1131812.43	-20.24
637301.23	1131920.12	-19.08
637304.94	1132029.27	-17.85
637301.04	1132140.15	-16.61
637301.86	1132248.81	-15.37
637298.55	1132358.38	-14.14
637303.14	1132466.82	-12.91
637310.63	1132575.09	-11.69
637299.59	1132683.48	-10.46
637301.4	1132790.07	-9.23
637305.02	1132899.43	-8
637309.08	1133008.65	-7.43
637298.67	1133116.65	-6.85
637302.81	1133225.62	-6.28
637311.66	1133334.26	-5.7
637308.5	1133443.53	-4.87
637302.16	1133551.59	-3.96
634789.57	1132792.92	-4.1
634806.27	1132684.49	-4.66
634806.24	1132567	-5.38
634797.61	1132456.64	-6.1
634790.45	1132348.2	-6.82
634794.26	1132238.78	-7.54
634799.22	1132130.51	-8.26
634796.27	1132023.6	-8.98
634798.51	1131914.53	-9.7
634800.03	1131809.04	-10.42
634798.91	1131700.64	-11.14
634790.89	1131593.91	-11.86
634798.95	1131486.91	-12.58
634792.71	1131376.72	-13.3
634795.67	1131269.81	-14.02
634801.8	1131163.01	-14.74
634803.43	1131054.41	-15.46
634800.61	1130947.53	-16.29
634801.98	1130839.01	-17.22
634802.09	1130729.82	-18.16
634795.09	1130514.28	-20.03
634802.07	1130407.06	-20.96
634802.3	1130298.2	-21.9
634802.88	1130190.71	-22.83
634802.4	1130081.9	-23.77
634802.45	1129972.9	-25.79
634804.55	1129863.06	-28.2
634798.22	1129755.06	-29.98
634801.5	1129646.3	-31.13
634798.86	1129536.65	-32.09
634801.4	1129427.73	-32.43
634802.06	1129316.36	-32.78
634800.74	1129207.5	-33.13
634801.04	1129096.37	-33.48
634801.9	1128986.61	-33.83
634806.79	1128880.2	-34.18
634802.29	1128771.73	-34.53
634804.15	1128664.11	-34.87
634802.17	1128556.09	-35.22
634799.31	1128448.33	-35.57
634797.9	1128339.73	-35.91
634799.72	1128231.18	-36.13
634800	1128122.98	-36.31
634802.58	1127986.13	-36.31
634802.63	1127877.92	-36.19
634802.07	1127770.26	-36.1
634802.56	1127662.94	-36.09
634804.83	1127554.29	-36.08
634800.93	1127446.08	-36.07
634798.27	1127337.97	-36.06
634801.2	1127230.25	-36.05
634801.62	1127121.33	-36.04
634799.53	1126956.67	-36.03
634801.43	1126848.62	-36.02
634801.62	1126740.01	-36.01
634802.39	1126630.48	-36
634797.32	1126521.48	-35.71
634797.56	1126412.14	-35.5
634798.8	1126275.75	-35.52
634797.35	1126112.09	-35.54
634796.98	1125974.89	-35.56
634798.65	1125865.74	-35.57
634795.78	1125729.79	-35.59
634799.65	1125621.52	-35.73
634798.96	1125513.18	-36
634800.86	1125403.95	-36.27
634803.82	1125291.72	-36.27
634803.05	1125174.24	-36.01
634801.41	1125060.14	-35.75
634798.74	1124946.32	-35.49
634804.47	1124831.92	-35.23
634805.52	1124718.76	-34.96
634803.16	1124604.98	-34.7
634802.66	1124490.3	-34.44
634801.53	1124376.44	-34.18
634798.65	1124261.65	-33.92
634799.71	1124148.52	-33.65
634800.92	1124034.85	-33.39
634800.8	1123920.46	-33.13
634799.12	1123805.37	-32.87
634802.04	1123690.47	-32.61
634799.55	1123576.67	-32.35
634801.08	1123462.76	-32.09
634801.15	1123348.01	-31.83
634802.68	1123233.28	-31.57
634804.58	1123117.77	-31.07
634808.04	1123003.01	-30.5
634804.72	1122887.38	-29.92
634801.95	1122770.88	-29.35
634798.42	1122653.53	-28.77
634796.11	1122537.4	-28.19
634795.71	1122421.28	-27.62
634797.61	1122305.86	-27.04
634796.51	1122187.72	-26.47
634794.53	1122070.92	-25.89
634795.65	1121953.74	-25.32
634799.98	1121837.26	-24.75
634807.77	1121719.92	-24.17
634805.38	1121603.24	-23.6
634802.94	1121486.74	-23.02
634799.66	1121370.17	-22.45
634800.12	1121254.77	-21.87
634797.09	1121139.1	-21.29
634801.7	1121027.57	-20.72
634805.06	1120915.05	-20.14
634802.85	1120802.98	-19.32
634800.61	1120690.99	-18.4
634799.3	1120582.97	-17.5
634801.73	1120474.85	-16.59
634802.2	1120366.83	-15.69
634801.41	1120258.36	-14.78
634799.5	1120151.12	-13.88
634801.72	1120044.37	-12.98
634801.11	1119938.27	-12.08
634799.31	1119831.07	-11.17
634794.55	1119724.97	-10.26
634799.98	1119618.27	-9.36
634799.77	1119510.49	-8.45
634802.86	1119403.82	-7.33
634796.35	1119297.08	-6
634799.15	1119191.62	-4.78
634792.3	1119084.6	-2.8
632317.14	1131338.55	-2.1
632290.29	1131225.94	-2.84
632302.48	1131122.35	-3.56
632299.73	1131015.71	-4.28
632303.92	1130905.27	-5
632298.39	1130797.51	-6.38
632295.6	1130690.78	-7.77
632297.79	1130577.12	-9.15
632296.77	1130464.72	-10.53
632301.56	1130350.17	-11.92
632296.13	1130240.18	-13.32
632298.91	1130132.33	-14.71
632300.49	1130026.03	-16.1
632299.52	1129919.49	-17.6
632295.08	1129813.84	-19
632301.1	1129711.82	-20.44
632299.37	1129607.4	-21.7
632299.45	1129503.01	-22.94
632303.16	1129399.91	-24.18
632300.55	1129296.46	-24.69
632300.31	1129192.2	-24.95
632301.17	1129087.58	-25.2
632299.52	1128980.79	-25.46
632297.89	1128876.03	-25.72
632297.42	1128771.05	-25.98
632298.82	1128667.76	-26.23
632300.81	1128564.56	-26.49
632298.22	1128460.87	-26.74
632299.46	1128358.13	-27
632297.73	1128254	-27.25
632298.03	1128144.52	-27.51
632294.14	1128037.32	-27.77
632297.09	1127910.94	-28.09
632297.38	1127804.36	-28.34
632298.19	1127685.85	-28.66
632302.3	1127562.94	-28.98
632297.34	1127458.73	-29.24
632298.02	1127355.57	-29.49
632296.17	1127249.45	-29.75
632294.54	1127148.37	-30.01
632299.03	1127030.63	-30.32
632298.31	1126926.27	-30.77
632303.18	1126788.11	-30.81
632301.58	1126679.34	-30.72
632298.64	1126571.25	-30.63
632303.61	1126445.4	-30.52
632302.29	1126341.48	-30.43
632303.97	1126235.23	-30.34
632297.04	1126130.32	-30.25
632300.61	1126025.93	-30.16
632298.75	1125920.42	-30.07
632299.91	1125815.75	-30
632296.79	1125686.08	-30
632280	1125538.18	-30
632305.33	1125398.31	-31.52
632302.31	1125296.5	-31.21
632304.53	1125194.7	-30.9
632301.29	1125093.11	-30.7
632297.65	1124990.43	-30.5
632303.85	1124888.76	-30.3
632298.08	1124787	-30.1
632289.29	1124685.19	-29.81
632301.72	1124583.92	-29.44
632298.09	1124480.08	-29.07
632300.21	1124376.47	-28.69
632298.55	1124272.36	-28.32
632297.85	1124167.98	-27.95
632301.39	1124062.99	-27.57
632301.19	1123957.5	-27.2
632299.51	1123852.75	-26.82
632296.8	1123728.45	-26.36
632302.36	1123623.1	-25.98
632297.77	1123518.02	-25.61
632301.6	1123413.81	-25.23
632298.92	1123309.03	-24.86
632296.18	1123202.77	-24.48
632296.53	1123096.62	-24.11
632299.88	1122991.58	-23.74
632295.81	1122885.04	-23.36
632300.58	1122779.04	-22.99
632298.6	1122673.73	-22.62
632299.54	1122567.96	-22.24
632302.67	1122462.03	-21.87
632299.6	1122357.05	-21.5
632298.71	1122252.08	-21.12
632296.64	1122145.92	-20.75
632302.94	1122039.15	-20.37
632295.94	1121935.63	-20
632298.45	1121829.15	-19.46
632297.02	1121722.9	-18.93
632295.69	1121617.1	-18.4
632302.57	1121515.18	-17.86
632300.55	1121410.2	-17.33
632297.29	1121305.07	-16.8
632304.56	1121199.97	-16.27
632301.69	1121094.48	-15.73
632301.39	1120988.49	-15.2
632300.14	1120883.04	-14.67
632300.75	1120776.6	-14.13
632308.57	1120671.76	-13.54
632298.82	1120553.26	-12.77
632299.74	1120447.61	-12.16
632296.25	1120341.28	-11.55
632306.74	1120235.66	-10.93
632303.17	1120112.43	-10.17
632296.26	1120006.46	-9.55
632298.89	1119900.77	-8.94
632301.06	1119796.44	-8.33
632303.82	1119691.58	-7.72
632298.97	1119588	-7.11
632303.75	1119483.24	-6.5
632301.15	1119377.25	-5.82
632293.83	1119271.87	-4.87
632290.81	1119171.09	-3.79
629808.82	1117984.72	-3.6
629793.05	1118085.44	-4.78
629806.68	1118204.6	-5.61
629806.29	1118311.68	-6.16
629808.2	1118414.68	-6.62
629801.34	1118516.54	-7.09
629799.7	1118618.48	-7.55
629801.53	1118720.19	-8.02
629801.5	1118825.34	-8.48
629804.08	1118942.86	-8.95
629804.36	1119055.94	-9.42
629798.77	1119168.78	-9.88
629798.03	1119281.54	-10.31
629802.58	1119394.97	-10.73
629804.55	1119508.79	-11.15
629796.02	1119618.85	-11.57
629804.25	1119729.87	-11.99
629807.48	1119841.82	-12.41
629808.1	1119952.73	-12.83
629803.57	1120063.9	-13.24
629803.3	1120175.27	-13.66
629800.76	1120286.93	-14.08
629797.1	1120398.91	-14.47
629798.66	1120510.95	-14.87
629796.07	1120621.49	-15.26
629798.58	1120732.34	-15.66
629798.17	1120847.22	-16.05
629803.1	1120958.85	-16.44
629807.26	1121069.85	-16.84
629802.87	1121181.02	-17.23
629800.01	1121292.38	-17.63
629800.28	1121403.01	-18.03
629802.69	1121512.75	-18.42
629807.03	1121623.45	-18.82
629805.53	1121733.59	-19.21
629803.46	1121843.65	-19.6
629799.52	1121951.57	-20
629794.11	1122059.8	-20.23
629797.56	1122167.48	-20.45
629800.89	1122274.47	-20.68
629803.51	1122383.21	-20.91
629804.8	1122490.45	-21.13
629798.77	1122611.56	-21.41
629803.93	1122714.79	-21.64
629807.17	1122835.57	-21.92
629802.16	1122957.88	-22.21
629795.89	1123080.81	-22.49
629798.53	1123203.4	-22.77
629799.81	1123322.77	-23.06
629802.78	1123444.84	-23.34
629802.39	1123547.03	-23.57
629801.6	1123668.46	-23.85
629799.49	1123791.6	-24.13
629799.01	1123912.9	-24.42
629798.94	1124036.55	-24.7
629797.28	1124154.05	-24.98
629800.29	1124272.7	-25.27
629797.32	1124389.88	-25.55
629802.83	1124508.08	-25.83
629802.98	1124627.82	-26.03
629802.39	1124747.53	-26.11
629800.32	1124864.63	-26.19
629799.23	1124982.52	-26.27
629802.02	1125101.13	-26.35
629802.21	1125292.39	-25.62
629793.93	1125411.54	-25.5
629796.02	1125535.1	-25.7
629797.98	1125652.22	-25.9
629799.66	1125772.25	-25.5
629801.11	1125893.61	-25.1
629802.32	1126014.65	-24.7
629797.31	1126135.51	-24.3
629797.78	1126258.42	-23.9
629798.24	1126380.28	-23.5
629799.44	1126503.15	-23.1
629801.55	1126623.97	-22.7
629804.58	1126745.37	-22.31
629803.08	1126866.42	-21.91
629800.58	1126988.83	-21.51
629798.49	1127107.23	-21.11
629796.67	1127228.4	-20.72
629799.07	1127350.45	-20.32
629802.38	1127472.64	-19.86
629806.99	1127581.86	-19.3
629802.92	1127696.74	-18.75
629797.28	1127812.06	-18.19
629795.98	1127926.29	-17.63
629800.19	1128041.98	-17.07
629801.24	1128159.5	-16.51
629797.87	1128277.28	-15.95
629801.52	1128393.63	-15.4
629797.99	1128509.96	-14.84
629799.84	1128627.92	-14.28
629799.62	1128746.22	-13.8
629798.28	1128862.44	-13.39
629801.72	1128980.51	-12.98
629798.8	1129098.85	-12.57
629797.03	1129217.47	-12.16
629795.45	1129335.29	-11.75
629800.57	1129452.13	-11.34
629804.05	1129568.6	-10.93
629799.66	1129682.36	-10.52
629799.27	1129787.18	-10.11
629797.06	1129892.39	-9.71
629795.76	1129998.62	-8.9
629802.08	1130101.28	-7.81
629805.37	1130205.33	-7.05
629802.1	1130308.61	-6.29
629797.79	1130411.62	-5.52
629799.6	1130514.27	-4.76
629799.94	1130637.39	-3.6
627317.09	1127759.94	-2.95
627300.58	1127654.19	-4.2
627300.59	1127543.28	-5.4
627297.96	1127432.94	-5.85
627298.33	1127326.71	-6.41
627297.53	1127226.61	-6.97
627296.86	1127125.75	-7.53
627298.78	1127010.66	-8.09
627296.77	1126886.8	-8.65
627296.27	1126762.62	-9.22
627300.9	1126661.46	-9.66
627302.55	1126540.61	-10.28
627295.89	1126417.15	-10.99
627299.24	1126293.26	-12.66
627302.59	1126171.7	-14.07
627301.02	1126049.24	-14.44
627291.38	1125937.76	-14.81
627291.56	1125835.93	-15.12
627299.88	1125712.04	-15.49
627301.82	1125591.71	-15.86
627295.6	1125475.49	-16.23
627299.63	1125354.21	-16.6
627302.13	1125240.08	-16.97
627298.13	1125124.2	-17.34
627298.75	1125007.75	-17.71
627297.87	1124891.56	-18.08
627300.29	1124777.55	-18.45
627299.23	1124663.88	-18.82
627295.83	1124543.75	-19.02
627296.56	1124432.09	-18.97
627295.47	1124313.34	-18.92
627298.07	1124196.34	-18.87
627298.88	1124077.19	-18.82
627299.92	1123963.97	-18.77
627299.43	1123845.78	-18.72
627296.74	1123727.62	-18.67
627295.53	1123606.7	-18.62
627297.62	1123482.23	-18.57
627300.62	1123360.03	-18.53
627301.76	1123241	-18.48
627302.22	1123117.49	-18.43
627305.44	1122992.58	-18.38
627302.18	1122872.55	-18.33
627300.8	1122747.74	-18.28
627301.36	1122500.06	-18.18
627297.91	1122375.95	-18.13
627299.78	1122275.09	-18.09
627299.75	1122173.71	-18.05
627298.39	1122070.46	-17.9
627299.03	1121965.79	-17.77
627298.26	1121778.95	-17.66
627296.61	1121670.27	-17.38
627294.63	1121560.14	-17.1
627293.77	1121450.38	-16.81
627293.99	1121340.44	-16.53
627304.39	1121231.06	-16.25
627304.61	1121119.62	-15.97
627298.55	1121009.64	-15.68
627297.72	1120899.83	-15.4
627302.23	1120788.38	-15.12
627299.8	1120675.96	-14.84
627297.57	1120562.45	-14.56
627297.04	1120449.61	-14.27
627302.62	1120337.14	-13.98
627300.51	1120224.04	-13.68
627296.88	1120111.08	-13.37
627297.29	1119997.04	-13.06
627296.05	1119884.15	-12.75
627296.06	1119773.47	-12.44
627297.66	1119661.5	-12.14
627294.29	1119548	-11.83
627294.55	1119434.63	-11.52
627301.53	1119321.53	-11.21
627298.08	1119208.19	-10.9
627297.22	1119093.87	-10.6
627301.65	1118979.2	-10.29
627297.8	1118864.45	-9.98
627300.74	1118749.35	-9.73
627298.83	1118637.19	-9.47
627297.56	1118535.27	-9.22
627296.11	1118432.29	-8.96
627298.96	1118330.71	-8.7
627304.22	1118228.16	-8.45
627294.41	1118125.46	-8.19
627299.58	1118022.91	-7.94
627297.08	1117920.56	-7.6
627295.76	1117817.81	-7.26
627295.66	1117712.81	-6.91
627297.22	1117607.76	-6.57
627297.79	1117503.53	-6.23
627295.25	1117399.28	-5.81
627301.59	1117295.27	-5.23
627301.45	1117189.96	-4.65
627303.55	1117084.42	-4.03
627304.12	1116978.24	-3.7
648869.13	1130650.01	-3.4
648765.82	1130665	-3.2
648659.02	1130654.29	-4.9
648554.41	1130652.86	-7.5
648452.71	1130649.82	-9.6
648351.07	1130642.72	-12
648249.2	1130649.55	-14
648147.04	1130650.41	-16
648044.42	1130652.31	-17.88
647942.83	1130653.98	-19.71
647839.87	1130655.58	-21.53
647738	1130655.34	-22.97
647635.97	1130656.7	-23.25
647532.94	1130659.09	-23.52
647430.54	1130652.95	-23.8
647328.3	1130650.37	-24.29
647223.72	1130647.68	-24.78
647121.79	1130645.6	-25.27
647020.04	1130647.92	-25.76
646916.98	1130647.02	-26.33
646816.67	1130644.91	-27
646715.46	1130649.84	-27.67
646616.38	1130635	-28.34
646496.14	1130652.16	-29.17
646393	1130649.76	-29.83
646290.88	1130648.4	-30.9
646189.51	1130652.22	-32.1
646086.5	1130651.24	-33.22
645983.61	1130654.31	-34.12
645880.27	1130654.26	-35.01
645778.54	1130651.64	-35.9
645596.85	1130652.95	-36.56
645494.32	1130655.8	-36.24
645393.91	1130647.17	-35.92
645288.13	1130646.61	-35.61
645186.38	1130645.3	-35.29
645060.74	1130655.33	-34.9
644958.44	1130649.3	-35.07
644856.65	1130640.52	-35.24
644732.84	1130639.77	-35.46
644565.03	1130646.07	-35.4
644442.25	1130641.1	-36.05
644317.52	1130644.22	-36.7
644215.68	1130649.08	-37.22
644114.46	1130646.46	-37.74
644013.1	1130647.65	-38.28
643912.51	1130649.08	-38.83
643811.2	1130645.5	-39.38
643709.6	1130646.99	-39.93
643607.98	1130647.53	-40.48
643506.14	1130646.91	-41.03
643404.35	1130649.28	-41.59
643301.88	1130647.39	-42.03
643199.41	1130646.55	-42.17
643095.52	1130648.4	-42.3
642992.2	1130651.67	-42.43
642889.38	1130654.57	-42.57
642788.21	1130650.77	-42.7
642685.03	1130648.82	-42.5
642581.65	1130652.59	-41.3
642479.39	1130651.07	-40.1
642376.21	1130653.97	-40.07
642245.14	1130658.99	-40.04
642144.13	1130651.95	-40.01
642041.37	1130644.75	-39
641916.22	1130653.69	-39.33
641812.5	1130657.79	-39.6
641710.12	1130655.73	-39.87
641603.8	1130656.4	-40.15
641502.05	1130651.29	-40.45
641342.78	1130653.14	-40.39
641238.68	1130656.62	-40.18
641136.48	1130654.22	-39.97
641033.34	1130658.54	-39.76
640930.36	1130660.71	-39.55
640828.79	1130658.13	-39.34
640726.36	1130655.62	-39.13
640625.25	1130653.78	-38.92
640524.34	1130656.67	-38.71
640423.54	1130657.77	-38.5
640323.61	1130648.7	-38.32
640220.83	1130653.86	-38.15
640096.72	1130650.6	-37.93
639996.33	1130649.19	-37.75
639871.69	1130640.73	-37.53
639751.97	1130658.42	-37.31
639651.82	1130662.73	-37.13
639529.88	1130648.95	-36.79
639429.57	1130656.74	-36.38
639328.51	1130651.85	-35.96
639204.82	1130655.52	-35.45
639104.79	1130654.4	-35.04
638980.8	1130652.36	-34.52
638880.21	1130654.31	-34.1
638778.69	1130647.6	-33.79
638655.99	1130651.35	-33.44
638553.59	1130649.09	-33.16
638453.46	1130648.14	-32.88
638352.33	1130644.33	-32.6
638252.05	1130651.06	-32.32
638151.57	1130647.23	-32.04
638048.55	1130646.39	-31.75
637947.49	1130648.93	-31.47
637822.92	1130650.06	-31.12
637722.42	1130644.79	-30.84
637599.22	1130647.42	-30.49
637496.14	1130657.21	-30.21
637396.19	1130644.68	-29.92
637295.36	1130648.07	-29.58
637193.36	1130646.49	-29.25
637092.25	1130648.18	-28.92
636968.31	1130655.38	-28.5
636866.55	1130646.29	-28.17
636767.44	1130660.03	-27.84
636664.4	1130654.64	-27.51
636563.33	1130652.02	-27.18
636459.8	1130650.85	-26.85
636358.13	1130653.33	-26.51
636255.58	1130656.39	-26.18
636152.15	1130651.54	-25.85
636049.11	1130649.51	-25.51
635946.9	1130644.84	-25.18
635844.37	1130649.67	-24.5
635741.26	1130646.2	-23.7
635638.8	1130653.99	-23.03
635535.68	1130655.63	-22.4
635432.96	1130645.34	-22.3
635259.3	1130652.7	-21.3
635157.65	1130645.91	-19.7
635057.5	1130655.16	-19.3
634956	1130658.95	-18.9
634730.34	1130646.22	-18.29
634628.75	1130655.75	-18.03
634526.07	1130648.28	-17.78
634425.2	1130645.7	-17.52
634324.39	1130659.38	-17.27
634221.5	1130646.24	-17.02
634120.69	1130640.91	-16.76
634020.14	1130651.82	-16.51
633917.67	1130652.62	-16.25
633814.02	1130651.85	-16
633688.15	1130643.59	-15.57
633584.83	1130644.01	-14.64
633460.94	1130659.95	-12.72
633342.99	1130634.86	-10.49
633233.77	1130653.11	-4
623425.15	1122639.78	-2.14
623534.54	1122655.09	-2.3
623651.47	1122652.86	-2.74
623767.03	1122647.57	-3.28
623888.07	1122651.45	-3.44
624007.74	1122648.11	-4
624130.86	1122650.6	-4.36
624254.32	1122650.11	-4.71
624378.48	1122650.73	-5.25
624501.45	1122651.53	-6.51
624621.49	1122646.97	-7.76
624741.21	1122647.19	-9.02
624861.84	1122647.88	-10.11
624981.48	1122649.52	-10.58
625100.94	1122653.66	-11.04
625219.86	1122655.52	-11.51
625338.86	1122652.94	-11.97
625458.57	1122653.78	-12.44
625577.38	1122653.9	-12.9
625698.43	1122652.59	-13.37
625808.97	1122656.68	-13.74
625915.12	1122654.69	-14.11
626022.19	1122658.42	-14.48
626128.46	1122653.43	-14.86
626234.23	1122653.94	-15.23
626341.43	1122655.85	-15.6
626449.07	1122655.26	-15.98
626556.46	1122650.85	-16.35
626664.61	1122650.68	-16.72
626772.27	1122647.56	-17.1
626880.2	1122646.84	-17.47
626988.03	1122647.05	-17.68
627095.36	1122646.5	-17.85
627203.41	1122645.61	-18.01
627311.04	1122644.63	-18.18
627414.57	1122646.19	-18.34
627518.11	1122643.5	-18.51
627621.74	1122646.17	-18.67
627724.54	1122643.41	-18.84
627827.15	1122644.65	-19
627928.95	1122646.62	-19.17
628032.12	1122645.74	-19.33
628134.54	1122648.11	-19.5
628235.06	1122647.06	-19.66
628336.48	1122648.44	-19.83
628436.84	1122645.21	-19.99
628537.08	1122648.58	-20.15
628637.07	1122640.06	-20.32
628737.14	1122643.79	-20.49
628861.21	1122643.95	-20.69
628962.26	1122654.5	-20.86
629087.1	1122663.51	-21.07
629210.19	1122655.96	-21.27
629309.98	1122649.42	-21.44
629409.97	1122647.37	-21.6
629533.09	1122649.76	-21.81
629657.92	1122650.95	-22.01
629900.46	1122648.28	-22.35
630021.88	1122647.48	-22.45
630142.62	1122649.29	-22.56
630265.72	1122647.26	-22.67
630388.63	1122651	-22.78
630509.78	1122650.19	-22.88
630631.62	1122655.7	-22.99
630753.46	1122655.51	-23.1
630876.68	1122649.14	-23.21
630998.28	1122648.26	-23.31
631213.13	1122644.85	-23.38
631381.36	1122648.87	-23.36
631500.95	1122649.23	-23.35
631620.65	1122651.19	-23.33
631739.88	1122648.89	-23.32
631859.79	1122647.7	-23.3
632028.84	1122647.08	-23.28
632196.23	1122644.42	-23.26
632507.61	1122650.75	-23.22
632651.54	1122651.47	-23.2
632770.47	1122647	-23.51
632889.13	1122649.96	-23.81
633007.32	1122653.72	-24.11
633128.06	1122655.81	-24.42
633245.99	1122654.98	-24.72
633366.05	1122655.77	-25.03
633486.43	1122655.33	-25.33
633603.7	1122658.65	-25.64
633724.88	1122656.72	-25.94
633840.66	1122653.38	-26.26
633956.83	1122644.42	-26.58
634070.12	1122644.4	-26.9
634182.01	1122651.24	-27.22
634291.37	1122649.86	-27.53
634402.3	1122652.19	-27.85
634514.82	1122649.99	-28.17
634628.45	1122652.2	-28.49
634970.56	1122647.03	-29.45
635082.77	1122644.23	-29.76
635202.76	1122641.21	-30.08
635315.95	1122644.88	-30.4
635430.45	1122650.94	-30.72
635544.57	1122653.4	-31.04
635658.04	1122648.5	-31.36
635768.51	1122648.82	-31.68
635879.16	1122646.7	-32
635987.17	1122642.12	-32.19
636094.04	1122640.5	-32.38
636200.68	1122643.12	-32.57
636308.31	1122652.45	-32.76
636412.97	1122646.9	-32.94
636515.41	1122648.43	-33.13
636616.17	1122647.39	-33.32
636718.95	1122649.17	-33.51
636822.3	1122645.66	-33.7
636925.83	1122643.46	-33.89
637044.25	1122649.18	-34.25
637195.11	1122648.42	-34.5
637318.8	1122650.49	-34.25
637442.64	1122650.84	-34
637544.33	1122649.28	-34
637669.54	1122648.05	-34.8
637864.87	1122632.2	-34.4
637864.68	1122530.44	-32
637923.89	1122433.27	-6
638091.4	1122456.75	-27
638154.25	1122550.25	-20.2
638221.42	1122632.52	-21.9
638320.14	1122648.47	-25.54
638429.54	1122655.12	-28
638633.98	1122647.17	-27.71
638747.59	1122649.03	-27.12
638861.09	1122648.61	-26.5
638979.04	1122647.59	-25.93
639096.64	1122648.72	-25.6
639212.45	1122644.96	-26.35
639421.09	1122654.3	-20.1
639535.54	1122644.37	-23.8
639656.85	1122645.27	-24.4
639894.94	1122651.18	-30.3
640033.24	1122645.78	-36.52
640138.14	1122660.45	-40.18
640319.07	1122639.12	-40.64
640430.52	1122643.94	-40.41
640536.59	1122650.56	-40.19
640641.41	1122639.22	-40
640761.71	1122641.33	-40.15
640864.61	1122630.54	-40.29
640971.52	1122637.82	-40.44
641079.82	1122647.4	-40.59
641190.26	1122647.18	-40.74
641304.18	1122646.43	-40.88
641416.96	1122650.11	-41.04
641530.45	1122648.17	-41.22
641642.84	1122648.74	-41.4
641844.14	1122648.02	-41.54
641955.87	1122649.57	-40.77
642068.88	1122648.26	-40
642179.92	1122649.34	-40.45
642355.91	1122649.51	-40
642467.61	1122649.59	-40.45
642578.01	1122649.48	-41
642753.3	1122646.68	-41.9
642863.38	1122646.93	-41.72
642975.32	1122648.67	-41.55
643087.15	1122650.6	-41.37
643200.39	1122650.5	-41.2
643311.88	1122652.51	-41.03
643424.22	1122652.48	-40.85
643537.24	1122650.28	-40.68
643651.1	1122647.71	-40.5
643763.11	1122649.27	-40.71
643873.59	1122649.9	-40.92
643984.59	1122651.27	-40.66
644094.77	1122652.45	-40.11
644204.54	1122652.92	-39.56
644316.43	1122654.97	-39
644428.36	1122653.24	-39.5
644560.88	1122649.55	-39.95
644671.82	1122649.26	-39.73
644783.91	1122652.11	-39.5
644896.11	1122654.41	-39.27
645006.67	1122653.76	-39.04
645118.72	1122655.13	-38.73
645231.39	1122648.22	-38.29
645345	1122643.82	-37.86
645458.74	1122651.69	-37.43
645576.41	1122646.5	-37
645694.11	1122645.74	-37.29
645810.49	1122646.17	-37.57
646016.76	1122645.09	-37.34
646132.36	1122650.07	-36.89
646247.45	1122651.87	-36.43
646365.55	1122649.16	-35.97
646487.89	1122649.52	-35.51
646648.13	1122642.05	-34.97
646764.6	1122645.35	-34.35
646880.3	1122640.56	-33.73
646998.17	1122639.79	-33.1
647114.71	1122638.63	-32.4
647446.92	1122581.94	-17
647577.95	1122532.66	-10.9
647633.66	1122642.04	-10
647751.44	1122636.45	-32.2
647890.42	1122650.51	-29.5
648008.19	1122653.58	-28.61
648125.91	1122651.12	-28.15
648244.31	1122650.45	-27.68
648361.31	1122645.83	-27.22
648477.64	1122648.5	-26.75
648595.4	1122653.81	-26.29
648713.55	1122654.64	-25.82
648831.42	1122654.13	-25.35
648948.83	1122651.01	-24.84
649066.48	1122650.53	-24.14
649185.19	1122651.48	-23.43
649304.7	1122651.43	-22.73
649425.2	1122650.45	-22.03
649545.43	1122648.6	-21.32
649667.1	1122651.16	-20.62
649911.35	1122646.94	-19.67
650034.34	1122650.44	-19.35
650158.75	1122648.76	-19.02
650283.41	1122652.78	-18.7
650383.56	1122653	-18.71
650555.65	1122659.49	-18.71
650723.9	1122649.72	-18.72
650914.25	1122647.61	-18.09
651032.72	1122645.82	-17.3
651150.35	1122652.58	-16.5
651266.58	1122653.59	-15.71
651381.76	1122645.67	-14.91
651500.03	1122647.07	-14.12
651617.15	1122648.12	-13.18
651731.96	1122647.89	-12.27
651846.51	1122649.46	-10.4
651961.3	1122644.94	-8.44
652076.79	1122646.58	-6.75
652193.23	1122654.45	-4.93
652306.33	1122653.89	-3.71
652420.12	1122657.54	-2.79
646750.3	1132302.19	-3.1
646685	1132216.77	-7.5
646664.55	1132401.67	-2.2
646582.07	1132320.65	-6.9
646483.96	1132272.86	-9.79
